# 3D point list with one line of data per point:
#   POINT3D_ID, X, Y, Z, R, G, B, ERROR, TRACK[] as (IMAGE_ID, POINT2D_IDX)
# Number of points: 396, mean track length: 8.896373820754716
22698 3.43629 0.498513 -1.50813 200 239 201 176 202 161 203 175 204 156 205 158 206 202 208 170 209 149 210 157 212 164 213 196 214 183 215 159 216 188 217 153 218 155 219 123 220 128 221 164 222 166 223 179
22699 7.1938 -0.00630128 -4.18155 201 265 206 209 207 247 209 242 215 239 218 206 230 258 232 235 250 193 492 113
22700 3.91377 0.216022 -1.86337 200 48 201 55 205 13 207 33 219 17
22701 3.72242 -0.557328 -1.74255 200 61 201 52 202 22 203 6 205 20 206 5 208 16 209 2 212 18 213 9 217 28 224 7 225 8 226 7
22702 3.24977 -1.30293 -0.908597 200 7 201 3 203 37 205 19 206 47 208 44 209 11 211 34
22703 3.33296 -0.585923 -1.35061 201 21 202 23 203 25
22707 4.2705 -0.0769245 -2.12788 200 218 201 235 202 162 203 177 204 161 205 183 208 136 209 146 210 154 211 111 213 116 214 115 215 154 216 157 217 114 218 149 222 127 223 138 225 167 226 122 227 135 228 151 229 145 230 91 231 91 231 130 232 108 232 147 233 68 233 137 234 67 234 99 235 59 235 95 236 70 236 99 237 66 237 102 238 106 238 133 239 72 239 132 240 103 240 177 241 93 241 148 242 106 242 144 243 108 243 147 244 84 244 108 245 87 245 107 246 85 247 57 248 47 249 22 250 26 251 47 252 26 254 99 255 99 257 145 259 130 260 140
22709 7.69935 -0.594067 -3.77723 200 214 201 229 205 166 206 214 207 258 208 221 210 219 211 216 213 219 215 219 216 213 217 205 222 224 223 228 224 215 228 213 231 182 234 212 235 175 238 225 239 192 241 157 246 166 247 124 250 206 253 106 300 121 525 202 547 218
22713 2.84053 0.247377 -1.0483 201 127 202 158 204 159 205 122 206 168 207 124 208 112 209 118 210 122 212 129 213 154
22714 3.30534 0.448913 -1.28511 201 207 202 126 203 173 204 122 205 143 206 153 207 143 216 124 222 169 224 155
22715 3.31283 0.204896 -0.404679 201 216 203 185
22716 4.09808 0.57841 -1.93287 201 174
22720 2.72658 -0.5086 -0.674748 201 10 202 31
22721 3.82027 -1.74177 -1.02616 200 32 201 49 202 10 209 12 210 24
22724 3.40495 0.524429 -1.26454 200 281
22726 2.97956 -0.868314 -0.976682 200 97 201 79 202 76 203 56 206 58
22727 2.84376 0.123863 -1.27882 200 249 203 233
22728 2.59426 -0.454775 -0.957414 201 111 204 105
22729 3.31926 0.224883 -0.465508 204 157
22731 3.81503 -1.93959 -0.847959 204 162 205 124
22736 3.07626 -0.923097 -0.785255 201 113 202 75 203 63 205 80 207 80
22738 3.13413 -0.148201 -1.0917 201 150 202 148 203 125 210 137 216 140
22739 2.68846 0.0451944 -0.939173 200 206 201 142 204 158 205 136 206 135 207 123
22740 3.26778 -0.117671 -1.33583 200 268 202 230 204 227 205 187 206 158 207 184 211 201 214 176 215 251 216 181 219 177 220 212
22746 3.46702 -2.87372 0.696463 200 158
22750 3.39477 0.0924219 -0.553643 203 44
22751 2.7228 0.132822 -0.979243 203 17 204 32
22755 3.52541 -1.29437 -0.905886 203 55 204 30 205 26 208 45 209 43 212 5 213 10 215 33
22757 5.57938 0.503512 -3.65353 204 38 207 40 208 26 210 36 211 20 213 43 214 41 215 9 216 5 217 9 218 17 219 14 220 16 221 15 222 15 223 6 224 9 225 7 226 25 227 18 228 43 229 41 231 9 232 13 233 7 234 7 235 5 236 6 237 2 239 1 240 9 241 12 242 13 243 29 244 40 245 35 246 18 247 19 248 46 249 41 253 18 254 38 255 44 256 19 258 1 259 0 527 17
22758 4.88284 0.164814 -3.99976 205 42 206 36 207 46 209 54 210 51 211 57 213 4 214 5 215 5 228 9 233 11
22760 4.65309 -1.83791 -1.15787 203 12 204 19 205 49
22761 3.44041 -0.425085 -1.54774 205 8 208 9 210 20 211 15 212 15
22762 3.44207 0.515516 -3.77151 203 58 204 70 210 58 211 61 213 70 214 65 215 86 217 36 218 65 243 27
22763 2.9963 -0.827257 -0.65991 204 51 205 50
22765 7.16337 -0.270585 -3.34054 203 82 205 64 206 64 207 68 219 64 222 78 232 61 233 56 234 49 235 43
22768 2.56694 -0.553423 -0.941573 203 97 204 104 205 101 206 57
22775 4.33291 -1.38514 -0.744842 203 130 204 103 205 99 207 97 209 83 210 59
22776 3.84384 -1.17017 -1.00003 206 106 207 98 208 91 216 52
22777 3.31806 0.452742 -4.3781 204 78 205 76 207 78 213 69
22778 3.67454 -0.583322 -1.71444 203 66 204 100 205 66 207 103 208 75 210 79 212 113 213 89 214 53 215 42 216 54 217 48 219 52 220 110 222 117 223 93 224 107 225 150 228 72 229 47
22783 3.86579 0.259058 -1.81703 204 141 205 106 206 141 207 180 210 141 212 147 213 125 214 152 219 139 222 112 223 100 224 77 226 111 227 75 230 103 231 78 259 89 261 77
22785 3.96497 -0.0839247 -1.60837 205 165
22788 3.17816 -0.876382 -1.03303 204 237 205 132 208 106
22792 3.34023 0.358312 -1.1819 203 210 205 213 206 235
22793 3.87602 0.339686 -1.89462 203 207 205 168 206 224 210 203
22796 3.41724 -0.888836 -1.13007 203 287 205 244 206 254 222 219
22798 5.06249 -0.735535 -2.59753 203 215 204 280 207 273 208 166 212 191 213 260 214 179 215 188 216 158 217 115 218 121 219 94 220 83 222 199 223 174 224 154 225 114 225 135 226 69 226 98 227 69 227 110 228 119 231 63 232 55 233 41 234 44 235 40 236 73
22801 7.46427 -0.29532 -3.57455 203 11 204 7 205 16 206 11 207 3 208 12 209 9 210 6 211 5 212 14 213 13 214 15 215 24 216 40 217 22 218 19 219 16 222 48 225 6 230 27 233 21
22802 5.42618 -0.679662 -2.91925 207 47 208 14 210 5 219 22 220 46 223 50
22804 4.79984 -1.29697 -2.60224 203 50 204 55 205 55 206 46 207 65 208 84 209 57 210 27 211 27 212 32 213 56 214 49 215 28 216 50 217 65 218 45 219 1 220 28 221 1 222 0 223 0 224 1 225 1 226 1 227 0 228 0 230 38
22806 4.14609 -0.48981 -1.92021 203 89 204 81 205 54 206 56 208 76 210 70 211 50 214 70 215 70 216 75 217 67 218 78 219 29 220 38 221 37 222 35 223 40 224 49 225 24 226 42 227 43 228 20 230 62
22807 4.00422 0.435068 -1.80837 203 107 208 71 210 66 211 63 216 92 221 83 230 60
22808 6.70812 0.132048 -4.85415 203 153 204 171 205 186 206 187 207 163 208 159 209 183 210 245 211 194 223 127 224 139
22810 3.66962 -0.584531 -1.71276 204 135 205 95 210 133 213 130 214 106 222 145 223 157 224 118 226 140
22812 3.07179 0.3064 -1.19973 207 125 208 113 212 89 214 126 216 126 217 121 218 124 219 125 220 96
22814 7.19253 0.108549 -5.04073 203 184 204 216 208 126 211 155 213 144 214 209 218 114 223 161 224 189 230 153 231 192 238 144 246 172 248 127 487 99 499 100 505 118 509 119
22815 7.77952 -1.1884 -3.36501 203 171 204 119 205 115 206 115 207 84
22817 6.02774 0.558644 -5.80898 205 173 207 141 214 164 216 109 217 137 219 109 220 148 221 183 222 183 223 241 224 182
22818 5.67571 0.61523 -5.09906 203 187 204 214 205 216 241 139 251 99 308 1 491 48 494 58 498 63 499 49 503 73 505 119 522 69 523 86 524 120 526 130 527 97 530 106 534 122 537 192 538 174 541 172 547 97
22819 6.23293 0.381535 -4.83998 203 164 204 193 205 220 206 194 207 250 208 230 209 108 210 180 211 156 212 150 216 110 217 101 218 138 219 174 221 117 222 150 226 114 227 170 228 142 229 203 230 159 231 145 232 180 233 163 234 160 235 185 236 156 237 145 238 147 239 186 240 160 240 189 241 131 241 160 242 193 242 225 243 214 243 233 244 210 245 217 246 254 247 201 248 195 249 172 250 215 251 160 252 268 253 207 254 235 255 149 257 135 258 152 259 161 263 117 264 135 295 64 296 59 298 95 299 53 300 72 301 41 492 93 493 87 495 55 496 62 498 99 499 93 500 86 501 92 502 118 504 107 506 116 507 143 508 124 510 94 512 92 514 116 516 132 517 92 520 111 523 118 528 149 529 139 530 136 534 215 535 148 537 238 539 179 540 171 541 171 545 148 549 148 551 130 554 128 556 139
22820 6.79065 0.135369 -4.88307 206 238 207 249 208 193 209 228 214 167 218 142 223 201 224 229 226 211 227 213 229 214 230 247 231 249 232 278 233 232 234 291 235 246 236 252 237 196 238 211 240 179 244 208 247 195 248 213 249 253 259 182
22824 4.23093 0.76929 -3.93768 205 179 207 149 209 175 211 135 212 152 213 145 215 147 218 140 219 194 223 160
22825 3.57622 -0.690946 -1.76415 207 205
22826 3.28851 -0.529105 -1.32366 203 243 204 257 205 209
22827 5.83351 0.567872 -4.6087 205 221 208 194 209 253 213 185 214 173 215 181 216 251 217 170 218 173 219 171 220 182 221 186 222 233 223 199 224 187 225 257 226 221 227 203 228 190 229 204 230 225 231 226 232 202 233 187 234 209 235 215 238 187 239 187 240 190 241 193 242 226 243 201 244 245 245 183 246 213 247 245 248 242 249 287 250 250 251 230 252 269 253 251 254 261 255 231 258 154 264 83
22828 6.47779 0.414002 -5.25151 203 211 205 215 206 225 207 183 208 164 209 225 210 181 212 184 213 142 214 172 217 133 218 174 219 172 220 183 221 227 222 191 223 200 230 160 231 193 233 168 235 176 239 156 241 137 243 137 244 137 245 185 246 163 256 145 263 157 264 190
22829 4.83433 0.684118 -4.48245 206 226
22830 7.5918 -0.414025 -3.89306 203 231 204 220 205 232 206 243 207 265 209 200 210 208 211 167
22831 4.31669 0.168888 -2.31392 203 178 208 186 210 212 212 208 213 221 214 241 218 183 219 214 220 186 221 231 225 201 228 185 231 155 232 191 235 195 236 198 237 245 241 118 242 102 243 105 244 106 247 180 248 179
22833 5.8625 0.631531 -5.19726 203 236 205 148 206 186 207 224 209 226 210 239 225 236 228 189 233 188 238 188 256 182 293 89 509 155
22838 5.87042 0.622881 -5.21825 203 285 205 253 207 246 209 249 213 250 217 224 221 251 228 219 230 232 233 218 238 221 241 190 483 101
22839 3.96439 -1.98694 0.446698 203 269 204 248 205 227
22840 4.24486 0.564229 -2.32568 203 221 206 271 207 274 208 232 209 222 210 242 213 255 214 262 215 262 216 243 233 177 256 157
22843 4.14878 -0.693605 -1.99141 203 32 209 21 213 46 214 47 216 1 221 14 229 15 230 21 231 40 232 8 233 42 234 18 256 23
22844 6.32431 0.485582 -4.98445 203 39 204 69 206 34 208 67 209 39
22845 4.23492 -0.744186 -2.01406 203 88 205 104 208 65 214 69 223 63 227 72 231 55 240 82 241 53 247 115 248 114 249 121 250 89 251 116 252 131 253 136 254 76 255 78 259 53
22849 5.00626 0.689159 -2.93191 203 156 204 145 205 159 206 136 207 126 208 142
22850 7.13254 -0.137318 -3.81642 204 146 205 129 208 120 212 140 213 140 217 80 218 131 225 134 234 126 235 109 236 149 237 174 238 117 240 155 243 98 247 77 503 112
22851 5.12535 0.481613 -5.27564 203 90 205 144 206 177 207 223 209 96 210 112 211 133 212 175 213 143 214 162 215 111 216 147 217 104 223 153 224 114 225 158 227 85 228 103 229 133 231 84 232 136 233 129 234 157 235 110 236 145 237 141 238 119 239 143 240 157 241 138 243 88 244 81 245 115 246 96 247 105 248 94 249 134 250 168 251 190 252 179 253 121 254 123 255 110 256 146 257 97 258 81 260 51 261 57 262 109 298 54 299 20 300 48 301 24 302 57 303 22 304 46 493 26 494 81 495 30 497 41 498 79 499 71 500 27 501 50 502 89 505 56 506 97 507 125 508 140 510 92 511 112 512 116 513 118 514 139 516 106 519 81 520 106 521 101 522 99 523 102 524 119 525 187 537 124 538 152 539 160 542 134 543 165 544 178 546 110 547 149 548 183 549 152 550 124 551 150 552 102 553 71 554 115 555 66 556 65 557 35 558 63 559 23 559 72 560 36 560 58
22854 5.60252 0.169117 -4.1994 208 125 541 266
22860 5.16686 0.579041 -5.33099 203 237 204 230 207 216 210 221 214 165 216 222 217 171 218 225 219 173 220 209 221 224 222 228 223 274 224 228 225 157 226 219 227 216 229 206 230 227 231 190 232 254 233 169 234 240 237 171 238 149 239 181 240 159 241 155 243 165 244 162 247 212 248 192 254 124 255 100 260 105 303 60 483 47 484 67 486 50 487 101 488 74 489 95 490 94 491 88 492 75 493 80 494 109 495 113 496 95 497 90 498 97 499 101 500 83 501 99 502 135 503 129 504 125 505 141 506 159 507 171 509 76 510 119 512 89 513 101 514 186 515 173 516 175 517 194 518 189 519 263 520 160 521 169 523 138 524 166 525 262 526 184 527 223 528 204 530 188 531 190 532 252 533 185 534 232 535 229 536 220 537 218 538 205 539 205 540 201 541 219 542 224 543 214 544 239 545 198 546 253 547 280 548 197 549 215 550 178 551 132 552 138 553 165 554 103 555 126 556 90 557 75 558 99 559 121 560 60
22862 3.71144 -0.409613 -1.50989 204 221 207 232
22864 5.59474 0.483043 -5.61911 203 188 204 114 205 174 206 217 207 261 209 161 210 176 211 202
22865 4.50313 0.835846 -3.89397 204 269 205 242
22866 7.59157 -0.820691 -3.64439 203 292 204 270 205 203 206 257 209 252 210 247 213 265 215 244 220 241 222 257 226 241 227 261 230 253 232 238 236 225
22868 5.08599 0.860019 -3.53232 203 295 204 262 206 281 207 257 214 251
22872 6.52166 0.227869 -4.33927 203 91 204 48 205 102 206 84 207 45 208 95 209 97 211 102 213 59 214 57 216 81 217 53 218 66 219 60 227 56 229 88 233 75 235 86 240 90 243 39 246 72 538 106
22874 4.16823 -0.458939 -1.85409 203 99 204 54 206 109 207 105
22876 3.12718 0.170592 -1.24919 204 87
22877 5.63488 0.313861 -3.28308 203 154 206 139 209 121 210 160 214 114 224 122 226 127 227 83 232 119 251 101 252 117
22878 4.17799 0.267639 -2.20671 204 235
22880 3.07496 0.0577665 -1.14719 203 229 204 175 206 231 214 142 216 207 217 196
22881 7.47862 -0.645046 -3.98167 207 233
22883 4.04936 0.610143 -1.88345 205 206 206 239 210 193
22884 8.01289 -0.685476 -4.13377 204 241 209 182 210 229 211 227 212 258 213 232 214 223 215 225 216 257 217 231 219 228 221 258 222 258 224 239 225 252 226 194 227 280 228 235 229 258 230 223 231 221 232 239 233 253 235 201 236 200 237 162 238 226 239 226 240 222 245 200 248 293 251 187 253 216 256 156 258 191 259 181 261 145 262 130 298 198 299 257 300 220 503 171 506 239 508 256 511 189 513 253 515 276 516 254 518 219 521 237 524 223 525 217 530 331 531 274 532 240 538 252 542 346 545 308 548 294 551 260 552 220 554 198
22885 4.26682 -2.08674 -1.10268 207 256
22887 4.2171 0.751473 -2.46966 204 247 205 226 208 233 209 265 212 275 225 247 240 223 241 169 242 205 244 212 246 195 255 220 256 274 265 176
22888 3.77498 -0.629208 -1.74063 203 31 204 43 205 65 206 31 207 27 208 43 209 46 210 43 214 38 216 8 217 6 218 31 219 6 222 5 223 38 224 65 227 24
22891 0.805702 -0.230281 -1.52722 203 226
22893 3.34399 0.194165 -1.46993 204 192 210 206
22894 4.67569 0.0464384 -2.41185 203 223 207 214
22896 4.00365 0.689546 -1.89414 203 176 204 160 205 160 206 170 207 127 208 141 209 152 210 159 211 141 212 200 213 202 214 189 215 198 216 232 217 217 218 194 219 218 220 193 224 199 225 203
22904 4.12825 0.119236 -1.99231 203 121 204 94 205 100 206 101 207 93 208 90 209 90 210 91 211 81 212 105 213 90 214 85 215 81 216 88 217 79 218 107 219 58 220 71 221 62 222 65 223 66 224 64 225 74 226 66 227 67 228 68 229 81 231 66 232 72 233 67 234 68 235 60 251 80 252 32 253 13 254 19 255 24 256 21 257 25 259 26 260 22 262 23 263 6 264 3 265 1
22905 3.19609 -0.119631 -1.28617 203 208 204 194 205 149 207 112 210 142
22907 3.06166 -0.532765 -1.33996 203 192 204 179
22908 4.00888 0.693009 -1.89688 203 299 204 279 205 261 206 283 207 241 208 211 209 193 210 191 211 174 212 249 213 241 214 231 215 232 217 184 218 229 219 188 220 232 221 201 222 173 223 217 224 157 225 137 226 195 252 226 254 206
22911 3.46599 0.579868 -1.47335 206 165
22913 4.11847 -2.06196 -1.10102 207 255 210 255 225 215 227 235
22914 3.38051 -0.252797 -1.2997 204 149 207 151
22915 3.47946 0.495164 -0.395419 203 218
22916 3.65386 -1.39701 -0.851781 204 66
22919 3.00739 0.43032 -1.08787 204 86
22922 2.67561 -0.73265 -0.9686 203 38 204 22 205 51 207 24
22925 3.74052 -1.9266 -0.0730664 203 270 205 194 208 174
22927 2.96777 -0.21014 -1.10752 205 48 206 73 211 47 212 51
22929 2.52039 -0.375098 -0.895108 205 152
22930 2.611 -0.341422 -0.906076 204 195 205 150 206 159 207 185 208 133
22932 3.28861 -0.356239 -1.26736 203 258 205 210 209 215
22933 4.11053 -1.3645 -1.49957 205 251 207 189 210 252 211 231 214 191 215 200 216 195
22934 3.01714 -0.42569 -1.25768 203 157 205 185
22935 2.6735 0.0764852 -0.875137 206 232
22936 3.0066 -0.275564 -1.08828 205 113
22940 4.41687 -1.73359 -1.2296 206 13 207 15 208 22
22941 6.34047 0.372474 -5.23027 206 26 207 16 208 20 209 16 210 10 211 8 213 23 214 17 215 46 216 9 220 22 221 23 222 37 223 23 224 21 226 9 227 28 228 11 229 16 230 11 231 17 232 26 233 20 234 3 235 24 236 4 237 18 238 23 239 20 240 6 241 2 242 31 243 2 244 21 245 14 246 16 247 9 248 6 249 25 250 21 251 35 252 60 253 15 254 4 255 18
22942 4.0466 0.328318 -2.19317 209 5
22943 4.22092 -1.1076 -1.79184 206 24 207 17 208 40 209 25 211 42 212 28 219 3
22945 3.16393 -0.791315 -1.2641 206 25 207 5 208 10 209 24 216 12 217 19 219 35
22948 3.23161 -0.0606572 -1.29893 207 35 208 33
22950 2.03659 0.55136 -3.63905 211 28 213 50
22951 3.71472 -1.03167 -1.11754 206 51 207 23 208 35 209 6 210 30 211 6 212 8 213 21 214 9 215 10 216 13 217 30 218 13 220 20 221 46
22952 3.60142 -0.958676 -1.14757 206 81 207 70 209 30 210 61 211 30 213 40 215 35 216 37 217 51 218 56 219 80 220 145 221 71 222 67
22956 3.70555 -0.694822 -1.50555 211 75 214 52 215 58 224 35 225 33 226 26
22957 3.26108 0.222337 -1.30979 206 96 208 86
22958 5.94565 -0.0396061 -3.2449 206 65
22962 2.60056 -0.336509 -0.913564 206 124 207 153 208 165
22964 3.31996 0.222492 -1.29233 206 134 210 82 211 101
22967 2.60132 -0.00548339 -0.951806 206 160
22969 3.66416 -1.47745 -1.00784 206 154 208 93
22970 4.35972 -1.77901 -1.11796 207 133 208 149 212 145 213 133 221 142
22972 2.61553 -0.628134 -0.906455 206 197
22973 4.47798 -1.27394 -2.11327 210 119 213 129 217 161 218 160 220 167 222 139 223 116 224 100 225 88 226 75 227 149 228 126
22974 2.66162 0.191353 -0.913117 206 167
22975 4.86155 -2.09136 -1.11236 207 134 208 150
22977 2.94382 0.428309 -1.08856 208 138 209 150 210 120 211 114 212 108 213 120 214 99 215 105 216 102
22980 3.44023 -0.0513249 -1.59431 206 206 207 211 208 201 209 224 211 187 212 214 213 174 214 170 215 175 216 177 217 141 218 145 219 146 220 115 221 152 222 176 223 166 224 146 225 132 226 123
22983 3.00064 -0.124568 -1.15199 210 200
22984 3.43209 0.333878 -1.49473 206 166 207 190 208 139 209 190 210 230 211 173 212 162 213 195 214 227 215 190 216 230 217 183 218 228 219 184 220 190 221 198 222 248
22985 3.14074 0.528689 -1.29116 207 227 211 164 212 125
22987 5.09012 0.699324 -2.9709 206 169 207 229 208 212 228 165 230 194 234 192
22991 2.92348 -0.117214 -1.07437 206 275 211 215 216 205
22994 4.42503 0.577269 -3.75859 206 262 207 254 208 181 212 277
22995 4.79544 -1.28928 -2.61701 206 199 207 237 208 169 209 189 210 186 211 136 212 136 213 161 214 128 215 109 216 134 217 162
22996 3.32992 0.18417 -1.44985 206 267 209 246 210 249
22997 3.44019 0.333679 -1.49377 206 245 208 171 209 151 210 158 211 139 212 194 213 235 214 182 215 158 216 187 217 214 219 217 220 230 221 234 223 250 224 233 227 230
22998 3.56968 0.557695 -1.69258 206 268
23000 7.5222 -0.085142 -4.93042 206 27 207 0 208 2 209 53 210 14 211 13 212 42 213 33 214 35 215 37 216 35 217 8
23005 4.30567 -0.129817 -2.11943 206 32 207 32 208 5 209 4 210 17 211 18 212 21 213 16 214 22 215 19 216 22 217 31 218 20 219 8 220 10 221 18 222 43 223 10 224 19 225 42 226 20 227 19 229 23 230 17 232 16 233 1
23007 4.98434 0.277935 -3.92571 206 28 207 1 208 3 211 21 213 5 214 6 215 38 217 33
23008 7.32806 -0.0555201 -4.8177 207 29 208 31 209 74 210 63 212 4 213 31 214 56 215 56 216 55 217 69 218 75 219 25 220 32 221 81 222 52 223 30 223 76 224 33 224 54 227 7 228 30 229 36 230 44 231 74 232 36 233 6 234 29 236 7 237 24 238 6 242 9 243 28 244 8 245 8 246 9 247 23 248 15 249 17 250 19 251 6 252 4 254 42 255 37 257 20 260 8 262 46 499 3 501 18 505 28 510 24 511 25 514 40 515 7 516 27 517 17 520 3 521 30 530 10
23010 5.09866 0.486753 -5.25941 206 71 207 62 208 66 209 70 210 98 211 93 212 82 213 84 214 91 215 64 216 58 217 98 218 100 218 112 219 103 220 55 221 103 223 56 224 97 225 103 226 82 227 53 228 54 229 90
23011 2.7514 -0.469075 -1.03994 207 74 208 53 209 64 210 87
23015 5.64714 0.0267016 -4.18925 206 82 207 50
23016 4.73659 0.193364 -4.02245 206 83 212 60 213 58 222 77
23019 5.67485 0.547282 -4.58264 208 78 211 90 212 94 213 107 214 110 216 91 217 99 218 93 219 85 220 88 221 57 223 90 224 112 225 91 226 85 227 99 228 56 229 95 230 122 231 119 232 131 233 125 234 106 235 67 236 116 237 116 238 110 239 81 240 77 241 111 242 129 243 131 244 122 245 117 246 107 247 70 249 72 250 77 251 98 252 83 253 100 256 56 258 56 261 27 262 56 502 23
23020 4.32882 0.544397 -4.82684 206 112 207 142 213 71 222 84
23021 5.22707 0.479641 -5.34693 206 111 207 99 208 77 209 128 211 74 212 106 213 104 215 93 217 45
23024 2.67371 -0.448333 -0.898827 206 91 207 81
23026 5.32533 0.477956 -3.67238 206 156 209 80 210 68 211 89 213 135 214 135 216 82 217 81 218 67 219 61 234 134 236 106 237 90 238 112 239 159 240 129 244 68 245 90 246 144 253 86 255 68
23027 5.84779 0.549536 -4.62402 208 103 209 143 211 108
23028 5.2772 0.784972 -5.9423 206 87 207 75 208 79 210 114 213 109 229 85 230 120 232 84 233 84 234 53 235 81 236 123 237 60 238 128 239 119 240 99 241 78 242 72 243 87 244 92 245 71 246 61 247 67 248 31 249 56 250 75 251 60 252 70 254 37 255 39 256 40 257 38 258 29 259 22
23030 8.9523 -0.681427 -4.02505 206 152 209 129 210 81 211 80 212 121 213 178 227 82 231 120 232 88 234 125 235 107 240 154 241 109
23038 5.88444 0.421538 -3.50441 206 183 212 153 213 216 214 218 217 136
23039 3.62625 -0.183101 -1.62965 206 211 207 210 208 198 209 180 210 171 211 149 212 171 213 177 214 169 215 174 216 176 219 176
23041 5.48203 0.343009 -4.13266 207 209 211 195 214 210 222 232 231 188 233 194 234 208 238 202 239 154 243 175 259 160
23042 7.99529 -0.617983 -4.01257 206 193 207 264 208 188 209 241 214 174 215 149 217 197
23044 7.10044 -0.212662 -3.41626 206 251 207 259 208 222 209 240 211 217 213 247 214 239 217 230 218 244
23047 5.78962 0.338855 -4.28151 206 260 214 250 232 246 242 196
23048 6.40922 0.564809 -4.90902 209 184 210 224
23050 3.59574 -0.652143 -1.47808 206 8 207 10 209 7 210 18 211 9 212 17 213 8
23053 6.95164 -0.00986423 -4.46653 207 101 209 132 210 101 229 163 232 163 233 117 236 126 237 152 240 111 245 92 248 118 528 97 534 110 535 111 536 100 544 122
23058 4.09351 -0.532325 -2.11927 206 185
23061 5.10996 0.475387 -5.28958 207 150 208 160 209 206 212 240 213 182 214 249 218 141 222 226 223 273 227 121 228 139 229 246 230 246 231 230 232 276 234 181 235 169 236 206 237 203 238 216 239 212 240 184 241 189 242 167 243 138 244 207 245 178 246 223 247 239 248 214 249 289 250 276 251 242 252 208 253 228 254 216 257 118 258 147 259 183 260 176 261 168 262 137 298 82 299 67 300 123 301 132 302 86 303 90 304 92 305 76 487 100 488 130 490 79 491 96 492 102 493 107 494 108 495 98 496 101 497 97 498 87 499 136 500 154 501 105 502 158 502 190 503 137 503 164 504 163 505 183 506 176 507 169 508 230 510 167 511 183 512 192 513 178 514 192 515 224 516 240 517 248 518 203 519 174 520 218 521 234 522 238 523 187 524 176 526 183 527 181 528 248 529 205 530 258 531 249 532 261 533 252 534 282 535 230 536 267 537 273 537 342 538 263 538 324 539 330 540 314 541 329 542 267 543 272 544 317 545 259 546 252 547 241 548 308 549 272 550 228 551 177 552 229 553 212 554 142 555 134 556 142 557 87 558 130 559 124 560 116
23063 4.78869 0.624893 -2.58999 211 218 212 197 214 263 216 244 217 227 218 220 219 198 220 250 221 222 222 177 228 253 230 214 231 238 235 178 248 268
23066 3.72737 0.0575057 -1.83835 208 37
23070 5.41421 0.846687 -4.01646 206 218
23071 3.15938 0.0610928 -1.19296 209 177 212 213
23076 4.10232 0.292836 -2.30329 208 39 213 72 216 42 217 32 224 42
23077 6.97408 0.189863 -4.5531 209 55 210 35 211 36
23080 4.54728 0.717254 -2.84937 209 123
23082 4.72029 0.582344 -2.60384 208 205 209 221 210 175 222 229 223 234 224 177 226 159 227 147 234 164 237 146
23085 3.06489 -0.307465 -1.01657 210 85 212 62
23087 3.88456 -0.504918 -1.82158 207 160 209 165
23089 4.11242 -0.495331 -1.91192 209 187 211 184 212 183 213 173 214 147 215 127 216 217 219 154 220 157
23091 3.42778 -0.272835 -1.60398 210 220
23099 4.29589 0.57117 -2.26778 207 262 212 236 213 96 216 93 217 94 218 125 219 129 220 163 221 169 222 172 228 121 229 110 230 102 231 102 232 75 233 74 240 75 245 75 246 114 247 88 248 108 249 83 250 59 251 109 258 102 268 97
23102 5.13082 -0.683924 -2.68595 207 187
23108 3.01012 0.188407 -1.27056 207 59 208 63 209 62 210 48 211 51 215 45
23109 3.31534 0.308246 -1.2965 209 135
23110 2.94851 -0.220593 -1.07018 209 159
23115 4.15772 -1.95861 -0.646165 206 18 207 20 209 42 210 23 212 56 214 27
23119 2.66869 0.0553908 -0.94626 207 157 208 140
23121 3.93418 -1.39898 -1.05456 207 202 210 166
23123 2.56255 -0.328672 -0.931386 206 277
23132 5.91482 -0.305966 -3.73382 209 1 211 12
23134 5.51135 0.354877 -3.51486 210 0 212 26 215 6 222 12 223 33 224 44 226 12 228 2 229 22 230 24 231 8 232 15 233 10 235 37 236 24 237 1 238 3 239 59 242 12 243 9
23135 3.72248 -0.379872 -1.60654 209 36 211 40 222 8
23136 2.90786 0.0578465 -1.08287 209 13 212 46 213 66
23141 5.17632 0.487718 -5.26596 209 38 210 34 211 29 212 58 214 40 215 15 216 39 217 26 218 7 219 26 220 33 221 32 222 31 223 31 224 32 225 36 226 32 227 26 228 24 229 35 230 36 231 42 232 39 233 33 234 30 235 29 236 35 237 32 238 42 239 34 240 36 241 58 242 38 243 66 244 50 245 44 246 45 247 37 248 27 249 26 250 45 252 12 253 16 254 34 255 27 257 31 258 10 260 31 261 8 495 16 496 21 498 23 499 12 502 34 505 34 506 62 507 25 508 52 509 36 510 56 511 67 512 88 513 59 514 52 515 66 516 53 517 53 518 82 519 15 519 63 520 20 520 64 521 19 521 65 522 36 522 59 523 49 523 60 524 16 524 76 525 40 525 85 526 58 526 85 527 38 527 101 528 43 528 81 529 45 529 85 530 44 530 87 531 46 531 83 532 53 532 87 533 35 533 82 534 56 534 92 535 54 535 127 536 49 537 83 538 70 539 74 540 66 541 71 542 72 543 57 545 37 546 90 547 59 547 74 548 31 548 57 549 41 549 82 550 40 550 77 551 23 551 63
23142 4.89277 0.766357 -5.26726 209 50 211 37 212 45 213 51 214 29 215 43 218 10 219 31 220 76 221 38 222 69 223 79 225 17 226 33 227 11 229 5 230 8 231 47 232 32 233 32 234 52 235 47 236 59 237 17 238 22 239 27 240 58 241 49 242 8 242 57 243 22 243 67 244 20 245 55 246 48 248 4 249 27 250 14 251 37 253 33 254 65 257 39 501 23 508 18 513 6 518 19 519 56 520 29 521 29 522 35 523 84 525 33 526 31 527 13 528 21 529 29 532 45 533 36 534 50 535 48 536 35 537 35 538 34 539 32 540 67 541 45 542 31 543 33 544 47 545 32 546 39 547 55 548 44 549 47 550 16 551 39 552 12 553 12 554 19 555 11
23148 8.10002 -0.544017 -4.38702 209 100 210 113 211 83 212 92 214 50 215 107 216 105 217 92 218 88 219 86 220 139 221 144 222 107 225 109 226 97 228 96 229 107 230 98 231 97 232 129 235 113 236 125 237 105 239 68 240 108 241 63
23149 6.88257 -0.9935 -2.83723 209 84 210 53 211 53 213 91 216 94 217 60
23155 4.85673 0.0948948 -3.91327 209 78
23157 7.77523 -1.16051 -2.92122 209 112 210 80 211 79 212 110 213 78 214 93 215 91 216 62 217 39 218 39 219 36 220 25 221 21 222 19 223 21 224 31 225 21 226 18 227 16 228 13 232 112 233 72 234 135 238 164 239 151 242 146 243 190 244 213 245 131 247 138 248 137 252 152 253 181 254 192 255 214 256 177 257 165 262 148 263 154 508 108 510 108 511 126 513 72 514 71 515 102 516 62 517 113 519 90 520 54 521 67 522 61 523 33 524 91 525 104 526 92 527 108 528 105 529 101 530 159 531 107 532 124 533 116 534 118 535 119 536 101 537 184 539 185 540 96 541 110 543 170 544 175 545 116 546 116 547 159 547 204 548 161 548 206 549 174
23158 3.05434 0.0455601 -0.970618 214 125 215 133 216 164
23160 6.67075 0.404968 -5.34961 209 142 210 147 211 132 212 148 213 181 214 221
23165 7.21808 0.214309 -4.58092 209 137 210 179
23168 4.70369 0.793436 -5.06071 209 207 210 254 212 222 213 183 214 222 216 223 218 172 220 181 221 184 224 185 225 265 226 220
23169 8.01018 -1.21127 -3.41084 210 217 211 170 212 192 213 192 214 180 215 216 216 211 217 179 218 185 219 182 220 187 221 195 222 246 223 246 224 196 225 238 226 240 227 259 227 294 228 252 229 252 230 210 231 212 232 194 233 209 234 189 235 174 236 184 237 217 238 197 239 172 240 237 241 150 242 210 242 247 243 191 244 227 245 162 246 191 247 215 248 255 249 240 250 246 251 185 252 221 254 233 255 164 256 153 257 151 258 224 259 172 260 199 261 224 262 170 302 176 303 193 304 200 305 206 306 194 505 209 506 255 509 154 510 195 511 178 512 181 515 198 516 146 517 180 518 173 519 167 520 165 524 241 525 238 526 235 527 233 529 255 530 206 535 287 536 272 538 275 539 263 541 326 542 279 543 348 544 271 545 261 546 187 548 199 549 219 550 202 551 163 552 111
23171 4.45873 0.81467 -4.00143 209 176 211 198 216 145 218 202 229 179 230 244 546 226 547 253
23173 3.28533 0.157583 -1.21106 209 178
23177 4.8408 0.814527 -5.14421 210 222 213 257 215 249 216 248 218 254 220 219 223 196 224 227 225 192 226 245 228 231 229 262 230 255 231 242 233 225 235 209 236 229 240 239 241 175 242 252 243 231 247 168 248 239 249 212 250 254 251 159 252 263 256 183 297 56 298 66 300 102 301 142 302 126 305 65 488 81 495 109 506 195 508 161 510 224 512 197 516 171 517 160 518 167 519 179 525 255 526 190 528 271 529 221 530 216 532 285 533 211 535 250 536 277 539 294 541 228 542 223 544 281 546 231 550 172 552 181 553 96 554 93 555 111 556 137 557 92 558 158 559 200
23178 4.77656 0.807683 -6.34192 210 182
23179 7.87597 -1.19691 -3.38673 209 251 210 246 211 207 212 244 213 264 214 252 215 243 216 228 217 212 219 215 220 229 221 232 222 247 226 193
23183 3.90789 -1.04465 -1.9111 210 187
23184 5.16288 0.47533 -4.93115 211 225 212 267 216 252 217 206 218 224 220 220 222 238 225 235 226 243 227 301 229 215 230 231 231 229 232 277 233 261 234 225 235 210 236 178 239 215 240 248 241 188 242 211 243 219 244 270 245 208 246 268 247 248 248 191 249 216 250 258 251 208 253 171 254 160 255 153 256 220 257 249 258 250 259 224 260 175 261 128 262 195 298 133 300 100 301 105 302 99 303 138 306 71 490 101 491 124 492 179 493 140 494 201 499 108 500 129 501 114 502 186 504 135 508 175 509 207 510 158 513 134 515 222 520 142 521 168 522 164 524 187 527 157 528 150 530 184 537 277 540 210 543 232 545 191 546 237 549 247 550 285 553 174 555 173 557 191 558 188
23187 4.38154 -1.9563 -0.779236 210 7 214 7 215 0 219 2 220 29 221 27
23189 4.86103 0.850201 -5.1087 209 15 211 16 212 49 213 17 216 16 217 15 218 33 224 24 228 40 233 19 234 60 236 3 237 28 239 44 240 47 242 58 243 23 244 33 245 56 246 81 252 49 504 24 505 39 507 35 508 17 510 35 511 30 512 39 515 45 516 40 518 38 519 16 521 12 525 32 526 26 530 11 532 44 537 36 540 32 544 46 548 43 551 11 552 5 553 3 554 12 555 19 556 32
23191 2.70924 0.36491 -1.39585 209 26
23192 3.43208 0.24971 -1.59609 214 68 215 76 217 42 218 79 219 74 221 53 222 53 223 84 224 80 226 49
23196 3.50243 -0.17313 -1.6353 212 73 213 38 214 58 215 59 216 38 217 10 218 8
23197 3.07294 0.0456371 -1.18264 209 60 210 56 211 65 213 39 214 39 215 44 216 21 217 35 218 57 219 100 220 116
23201 3.36398 -0.98077 -0.965881 209 63 211 55 212 64 213 37 214 54
23202 4.83352 0.780421 -3.75362 209 81 210 97 211 127 212 96 213 110 214 134 215 140 216 112 217 103 218 110 220 65 221 96 222 58 223 59 227 87 229 78 230 72 233 76 234 76 236 92 237 71 241 71 242 134
23203 3.03942 -0.819336 -1.09603 211 99
23205 2.87029 -0.476326 -1.02006 210 60
23206 4.70761 -1.7843 -1.09603 209 91 210 129 211 122 212 168 213 159 214 154 215 137 216 174 217 122 218 126 219 170 220 203 225 106
23209 6.11534 -0.0343931 -3.1228 209 130 210 172 213 115 214 136 215 152 216 154 220 118 221 127 222 158 227 168 228 116 230 100 232 177 233 156 234 169 235 157 237 153 238 118 239 146 240 118 243 150 244 175 245 147 252 80 525 90 534 128 536 85 540 106
23210 5.1047 0.804024 -3.84113 211 100 212 118 213 170 214 161 215 148 216 83 217 82 218 82 219 140 220 89 221 118 222 90 223 91 224 85 225 92 229 116 231 56 232 118 233 102 234 107
23212 3.84032 -0.0281858 -1.62431 209 114
23215 5.35452 -1.36931 -2.61842 212 157 213 149 214 117
23217 3.47656 -0.520926 -1.61095 209 133 210 170 211 150 212 210 213 167 214 156 215 168 224 133
23218 5.47296 0.461069 -3.67745 209 171 211 107 212 174 213 217 214 217 215 223 216 178 218 134 220 146 226 153 227 273 230 177 231 172 232 217 234 172 235 192 236 155 237 137 238 193 239 158 240 193 241 170 242 202 243 157 245 130 246 208 248 160 249 92 250 169 251 174 252 198 253 203 263 131 529 153 541 177 543 178
23219 4.85139 -1.19592 -2.57726 212 190 221 174 223 185 225 177 228 188 234 217 235 148 239 177 240 147 245 203 246 201 249 236 253 190 255 161 256 180 257 174 258 174 259 177
23224 3.91502 0.867506 -3.10238 210 148
23226 3.91229 0.765657 -4.19822 210 177 211 158 213 180 230 129 231 149
23227 2.46875 -0.515342 -0.999428 209 230
23229 4.04265 0.737925 -2.32119 211 191 212 237
23230 4.93457 0.485708 -2.62662 211 203 216 155 217 177 218 181 220 152 222 159 224 150 225 143 226 106 227 100 228 166 229 157 230 106 231 137 232 157 233 119 234 165 236 221 242 180 243 176 244 164 248 161 249 88 250 62 251 51 252 47 253 17 254 66 255 57 256 77 258 112 260 150 262 158 265 146
23234 4.33157 0.663457 -3.95544 211 211 212 252 213 261 216 240
23235 4.62094 0.806245 -4.59603 210 240 212 241 214 208 215 247 219 203 221 252 222 261 225 241 226 181 229 180 233 219 235 225 238 190 249 211 250 176 258 172
23236 4.58257 0.464393 -2.59242 209 254
23238 3.28963 0.140577 -1.19064 209 264
23239 4.87312 0.919789 -2.88054 209 231 210 231
23248 4.13104 -1.18902 -2.311 211 72
23250 5.29719 0.571134 -4.59386 211 157 214 139 219 143 221 115 231 148 234 161 235 177 239 142 241 133 242 130 258 86 525 159 526 147 531 176 534 198 537 171 541 202 545 151
23252 5.16863 0.597691 -5.61679 214 163 215 115 216 114 217 106 222 184 226 173 230 147 237 143 238 150 241 127 243 166 244 163
23253 4.29858 0.265111 -2.21898 209 218 210 211 211 224 215 215 216 246 218 184
23255 3.40421 -0.475556 -1.43222 209 212 210 205 211 185 212 211
23260 4.29286 0.0983398 -2.3031 210 40 211 39 212 23 215 21 216 24
23262 2.80273 -0.330101 -1.10657 211 31
23265 3.64761 -1.97817 -0.583307 209 196
23266 5.62721 0.341583 -3.61917 209 210 210 228 211 152
23268 5.1729 0.568322 -5.32518 210 223 211 214 212 259 213 259 214 216 215 178 216 221 217 207 219 145 220 208 221 246 222 256 224 188 225 255 226 244 227 292 229 237 232 187 233 241 234 198 235 170 237 142 238 183 239 213 240 217 241 187 243 206 246 206 247 240 250 209 251 243 252 262 253 250 254 239 260 126 261 183 262 177 295 63 296 43 297 44 298 56 300 50 301 61 302 58 303 91 304 47 305 53 306 28 307 92 486 97 487 134 502 159 503 150 510 168 512 153 513 136 521 103 542 321 546 202 547 182 548 309 551 175 552 230 554 143 557 95 559 90 560 100
23271 4.41383 -0.237945 -2.69629 209 41 210 29 215 23 230 1 231 10 232 18 233 37 234 23 235 6 236 8 237 34 238 5 240 11 242 16
23272 3.86573 -2.11398 -0.262417 210 195
23273 4.05174 -1.00013 -2.20925 210 42 211 43 213 45 214 26
23276 3.99043 0.60469 -1.87748 209 120 210 124 211 143 212 132 214 127 215 136 216 128 227 92 229 152
23278 3.05371 0.116214 -1.23744 209 263
23282 3.22033 -0.287717 -1.28625 210 150
23283 2.75377 -0.340524 -1.14392 209 94 210 73 211 86 212 97
23284 3.32742 -0.724339 -1.40817 210 259
23285 2.85139 -0.20717 -1.07187 209 198 210 151 211 168
23288 3.16626 -0.439813 -1.31444 209 145
23289 3.05335 -0.42689 -1.11165 214 214
23295 3.87091 -1.79598 -0.999814 212 57 213 55 214 28 215 29 216 27 217 1
23296 3.51285 -0.713926 -1.56765 212 38 213 28 214 36 215 40 216 32 217 27 218 52 219 51 220 39 221 40 222 49 223 32
23298 4.26262 0.537198 -2.22917 212 48 213 53 214 48 215 48 216 48 222 22 223 17 229 1
23299 4.28857 -1.66932 -1.0536 212 7 214 32 215 60 217 29 218 35 220 52 221 70
23304 5.28545 -1.58301 -2.12978 213 80 214 98 216 65 217 64
23305 6.58312 0.3685 -5.32617 214 64 215 63 219 76 220 100 221 102 222 83 223 111 224 95 226 22 227 55 229 37 230 45 231 72 232 95 233 79 234 123 235 57 236 69 237 31 238 75 239 70 240 67 241 57 242 94 243 122 244 101 245 100 246 79 247 71 248 93 249 108 250 78 251 97 252 84 253 74 254 104 255 72 256 55 257 98 258 48 259 61 260 53 261 75 490 1 492 8 495 10 497 9 498 9 500 5 501 6 503 10 505 12 507 14
23307 4.38917 -1.72816 -1.01092 212 74 213 102 216 108 217 49 218 54 220 60
23309 5.63659 0.476547 -6.09613 212 109 217 97 225 58 233 61 234 112 235 87 236 66 237 59 238 73 239 36 240 66 241 55 242 46 243 86 244 59 246 33 247 7 250 73 253 68 254 68 255 48 256 38 257 33 259 34 261 56 303 18 304 49 483 1 484 12 485 3 489 18 490 4 492 12 493 2 494 9 499 22 510 31 517 47 525 16 535 20 537 23 538 52 539 66 559 11 560 12
23311 7.22264 -0.305854 -3.86223 214 80
23312 3.3636 -0.671923 -1.58944 214 77 215 122 218 116 219 78 220 108 221 91 223 117 224 93 225 107 226 137
23314 4.19484 -0.676801 -2.18867 213 119 214 88 215 96 216 100 217 66 218 103 219 93 220 104 223 106 227 101 228 65 230 135 232 110 233 70
23317 7.24127 0.609356 -5.36758 214 108 218 108 219 106 220 112
23319 4.78066 -0.634263 -2.61271 214 145 228 158 229 172 230 118
23323 3.37376 0.565154 -1.29774 215 156 216 120
23324 3.34901 0.647654 -1.33915 214 121 215 128 216 90 217 85 218 90 221 162 222 130
23326 3.98951 0.804156 -3.85605 213 186 214 246 217 134 222 147 224 138 225 194 226 246 227 249 228 244 229 218 230 164 231 185 232 211 233 179 234 191 235 184 236 181 237 185 238 204 239 230 240 201 240 227 241 182 242 182 243 194 245 164 246 266 246 290 247 251 247 284 248 224 249 283 517 173
23327 5.30639 1.26423 -6.05839 212 186 213 187 214 175 218 177 219 210 220 184 221 187 222 192 223 202 224 190 225 239 227 219 228 232 229 177 230 243 231 255 232 256 233 257 234 294 235 240 236 230 237 214 238 251 239 232 240 259 241 195 242 258 243 260 244 279 245 235 246 282 247 291 248 294 249 281 250 289 251 250 252 275 253 235 257 178 258 176 259 217 260 159 261 172 292 112 466 30 467 53 471 63 473 53 528 146 531 196 542 210 552 165 558 78 559 106
23329 3.09714 0.260689 -1.21742 212 195 213 197 214 184 215 192 217 168 218 222 219 185 220 191
23331 4.31398 -1.23922 -2.37417 214 220 215 205 221 203 223 219 232 213 238 205 246 262 256 185 522 231 523 168 524 155 526 233 528 253 529 207 530 204 531 172
23333 3.1959 0.240508 -1.29637 212 219 216 186
23334 7.58461 -0.741645 -3.2157 212 229 213 218 215 218 217 204 218 218 227 260 244 215 537 220
23336 2.87747 -0.0101666 -1.14408 212 212
23337 2.31475 0.666127 -4.3806 212 185
23338 4.8143 1.20151 -4.99254 212 242 213 233 214 224 216 224 221 226 223 197 224 186 225 242 226 183 227 222 229 178 230 205 231 205 232 223 233 203 239 164 240 171 241 140 242 169 243 182 245 194 249 214 252 232 253 149 254 184 263 100 289 108 294 81 301 104 313 2 479 86 492 111 493 76 494 100 496 105 497 85 499 92 501 83 502 109 503 91 505 165 507 193 509 194 510 192 512 187 524 154 529 222 541 259 544 253 551 178 554 118
23339 4.17169 -1.30556 -2.56809 214 232
23341 7.56957 -0.711016 -3.23894 215 245
23342 4.39269 0.066963 -2.38353 212 263 213 253 214 244 230 267 231 231 232 236 233 205 235 216 237 242 245 199 247 254 248 288 253 176 254 92 315 228 316 242 318 253 319 293 320 271
23344 3.15508 -0.488041 -1.36373 212 265 213 234 214 213 219 178 220 151
23346 3.75438 0.779766 -3.81078 212 25 213 27 214 4 215 4 216 4 217 16 218 23 220 24 221 16 222 16 223 7 225 13 226 15 228 22 229 21 230 29 231 2
23347 4.79796 0.734115 -2.8127 212 11 213 0 214 20 215 18 216 18 217 2 218 25 219 20 220 42 221 48 222 17 223 20 224 15 231 4 246 11
23348 3.48978 -1.0699 -0.92066 212 6 213 11
23349 4.33807 0.494691 -2.30094 212 24 213 25 216 7
23350 3.51804 -0.0640851 -1.67836 212 43 213 18 214 10 215 8 219 27 220 34 221 33
23353 3.09541 -1.15892 -1.38478 212 35 213 36 214 8
23354 4.82415 -1.88182 -1.09644 212 76 213 68 214 105
23355 5.00482 0.760954 -3.74262 212 68 213 61 214 62 215 61 216 59 217 54 218 36 219 62 234 32 235 35 236 0 237 10 238 2 241 50 242 62 245 36 246 39 248 33 251 31 261 24 266 23 534 21 535 41
23356 3.14763 0.914765 -3.48233 212 70 213 67 214 66 215 84 216 85 217 73 218 83
23357 4.02939 -0.0566761 -1.81778 212 80 217 55 218 68 221 59 222 60 223 65 224 63 226 65 229 39 230 40 231 35 232 71 444 101 445 138 448 90
23358 3.10619 -0.39169 -1.11419 212 100 213 114 214 113 215 89 216 69 217 83 218 87 219 116
23359 2.96262 -0.0790878 -1.16868 216 70
23360 3.89756 -0.249614 -1.79394 212 103 213 74 215 66 216 67 219 53 220 35 221 55 222 32
23361 4.36917 0.525571 -2.63269 212 77 216 60 222 104
23362 3.42523 0.555153 -1.47815 212 107 214 92 219 63
23364 3.46451 -1.00643 -1.10887 212 99 213 100 214 107 215 79 216 51 217 50 218 55 219 55 220 61
23365 3.15337 0.632011 -1.25384 212 126 213 121 214 100 215 129 216 162 217 119 218 123 219 122 220 126 221 130 222 131
23366 3.28025 -1.28228 -0.96391 213 97 214 79 215 78 216 76 217 124
23368 5.87865 -0.00233151 -2.80778 214 137
23369 3.05336 -0.5308 -1.22738 216 96 217 111
23372 2.97074 0.603265 -1.06786 212 161 214 122 215 130 216 121 218 154
23373 2.80385 0.103096 -1.11143 212 165 213 123 214 150 215 160 216 189
23375 2.07222 0.736095 -2.59112 212 166 213 200 214 151 215 196 216 193 217 156 218 193 219 187 220 92 221 136 222 135 231 100
23377 3.47638 0.697442 -2.33441 212 180
23378 4.60211 -1.19536 -2.60674 212 203 213 244 214 193 215 202 216 143
23379 3.72215 0.790018 -1.57703 212 193 213 155 214 148 215 189 216 160 217 118
23380 3.3851 0.153171 -1.61149 216 203 217 191 218 207
23381 4.00958 0.522515 -1.87529 212 199 214 188 217 200 223 177 226 180 227 209 228 178 231 189 266 157
23382 5.94694 0.275331 -4.00401 212 206 213 215 214 201 216 202 217 221 218 213 219 204 220 213 221 185 222 190 223 198 224 137 225 225 226 212 227 242 228 200 229 209 230 238 231 224 232 245 233 248 235 186 236 182 237 184 238 232 239 184 240 232 242 195 243 239 244 240 246 204 249 201 251 154 252 199 253 225 254 149 255 219 256 236 258 153 261 150 262 180 263 147 265 180 499 112 503 161 504 142 506 207 508 225 510 184 511 214 512 167 514 217 515 234 516 213 517 207
23383 3.16129 -0.521898 -1.61966 213 222
23384 3.41743 -0.503254 -1.62412 213 206 214 195 215 206 216 238
23385 3.80967 -0.42557 -1.55536 213 207 214 197 224 209 225 209 227 250
23389 3.15606 0.626514 -1.25563 212 160 213 153 214 149 217 150 218 153 219 157 220 159 221 163 222 165
23390 3.22836 0.427767 -1.3106 212 233 213 230 215 191 216 163 217 152 218 157 219 186 224 201
23391 5.1515 0.252146 -2.5751 214 204
23394 3.67992 -0.497635 -1.70229 212 257 214 196 215 207 216 200 217 163 218 203 219 205 220 205 221 205 222 253 223 258 225 222 230 230 231 167
23395 3.99869 -0.471159 -1.91073 213 210 214 245 215 211 233 207
23396 4.84362 0.267605 -2.5761 212 264 213 254 214 242 216 227 219 213 220 251 221 192 222 244 223 207 224 195 225 169 226 192 227 265 228 187 229 201 230 178 231 173 232 196 233 146 234 149 235 133 236 138 237 136 238 107 239 110 311 191
23398 3.24709 0.507322 -1.29696 213 236
23399 3.98957 0.163779 -1.59345 212 270 214 237
23403 3.53869 0.648672 -4.62597 214 63
23404 4.03966 0.10797 -1.85925 212 104
23405 4.02846 0.453438 -1.79655 212 101 213 73
23410 5.21952 0.589547 -5.77639 212 151 213 108 215 150 217 139 219 110 220 149 232 134 238 148 239 124 242 124 243 135 244 135 247 163 248 201 258 62 261 91 297 81 298 57 300 32 302 29 304 25 481 14 482 15 484 29 486 41 487 28 488 43 489 26
23413 4.1923 -0.572009 -2.1335 215 228
23417 3.80015 -0.73834 -1.68423 213 60 214 37 217 47 218 53 219 28 220 56 221 36 222 34 223 62 224 36 227 49 229 60 230 75 231 112
23422 4.3144 0.56687 -2.2736 213 156
23424 4.06263 -1.5483 -1.65062 212 204
23431 3.47683 -0.617033 -1.55381 212 172 213 176 220 169 224 166 227 157
23433 3.40897 -1.56301 -0.874491 212 31
23436 3.27931 0.315599 -1.30045 212 127 213 92 214 59
23439 3.01154 -0.0861514 -1.13165 215 120 216 116
23442 3.08153 -0.388954 -1.12455 212 156 213 213 214 144 215 151 216 117 217 112
23445 4.11312 0.613734 -1.87431 215 1 216 0 217 3 218 1 219 18 220 1 221 5 222 23 223 22 224 3 225 19 229 46 230 10
23446 5.88468 -0.0501747 -2.81638 216 19 217 21 218 18 219 15 220 3 221 22 222 10 225 15 227 13 229 3 230 2 231 22 232 14 526 20 531 3 533 9 534 9 535 6 536 5 537 6
23449 4.0784 -2.29655 -0.900315 217 38
23450 3.89394 0.632707 -1.91179 215 49 216 47 217 41 218 27 219 23 220 30 221 28 222 29 223 53 224 51 225 49 227 2
23452 4.06573 0.525097 -2.62701 215 53 216 49 217 58 218 49 219 30 220 41
23453 3.44934 -0.867573 -2.2206 215 27 216 26 218 44 220 0 221 4 222 3 223 1 224 29
23455 4.29167 0.806172 -3.9993 215 51 216 44 217 37 218 34 219 48 222 38 223 35 225 40 226 37 230 30
23456 3.34324 -0.416528 -1.36431 218 47 219 46 220 9 221 12
23457 5.99025 0.229577 -4.03387 218 41 219 42 220 62 221 56 222 57 223 57 224 57 225 59 226 80 227 84 228 117 229 87 229 108 230 82 230 99 231 75 231 115 232 123 232 164 233 101 233 148 234 78 234 133 235 84 235 85 236 61 236 86 237 85 237 86 238 57 238 91 239 60 239 90 240 45 240 79 240 88 241 69 241 96 242 81 242 108 243 92 243 133 244 67 244 146 245 66 245 93 246 41 246 133 247 39 248 60 250 30 252 31 261 10 263 12 432 26 509 58 510 45 512 76 515 73 524 40 537 78 541 89 542 118
23458 5.70986 -0.0238241 -2.78321 215 62 216 41 217 61 220 66 222 47 224 68 225 38 229 44 230 34 231 28 232 62 233 4 234 34 235 7 236 30 237 26 238 10 239 2 240 3 241 6 242 14 243 12 244 12 245 30 246 7 247 6 248 10 249 10 250 8 251 9 252 5 253 0 254 1 255 1 256 0 257 0 258 0 259 24 260 3 261 3 262 2 263 2 264 42 310 49 527 57 529 72 531 59 534 72 535 29
23460 4.12611 0.520683 -2.34316 215 71 216 73 223 52 227 31 228 35 229 53 230 20 231 11 232 52 233 48 234 20 237 37 248 20 249 2 250 4 252 7 253 28 264 5
23465 4.26041 -0.0931897 -2.12957 215 80 216 87 217 78 220 90 221 89 222 96 223 71 224 71 225 73 226 64 227 66 228 38 229 57 229 80 230 51 230 52 246 94 247 116 248 100 249 73 250 58 251 86 252 176 259 70
23467 3.53046 0.749634 -1.64454 215 88 218 72 220 75 222 81 223 54
23468 3.64827 0.0627448 -1.1582 215 65
23472 2.03016 0.728142 -2.14257 215 134 216 127
23474 4.56879 0.76578 -2.53058 215 135
23475 3.97691 -1.7056 -0.981931 215 143 216 107 217 132 218 135 219 136 220 103 221 100 222 114 223 151
23478 3.5276 -0.535139 -1.59254 215 141 220 109
23479 3.62969 -1.19213 -1.0443 215 144 216 139
23480 3.45023 -0.0328635 -1.55527 217 107
23483 2.08747 0.878675 -2.77231 215 116 216 150 217 140 218 144 219 128 220 130 221 133 223 146
23486 2.07897 0.732203 -2.12905 215 163 218 152 219 156
23487 3.33242 -1.32511 -0.936615 215 139 216 165 217 157
23489 4.88275 -1.5095 -2.33398 215 167 219 133
23490 4.00758 -0.0381356 -1.81556 215 153 216 156 217 145 218 167 219 150 220 185 221 121 222 152 223 164 224 117 225 164 226 121 227 94 228 114 229 183 230 184 231 165 232 218 257 102 259 132 260 95 261 70 262 141 263 80 264 44 265 90 432 231 440 234 441 219 442 175 443 195 444 184 445 215
23492 2.03876 0.744674 -2.20527 216 191 217 155 218 191 219 155 220 158 221 161 222 164 223 176
23493 2.06075 0.733488 -2.13369 215 194
23495 3.85522 -0.00219195 -1.85581 215 213 216 209 217 201 219 180 222 194 223 230 224 144
23496 4.29967 -1.68519 -1.04055 215 172 216 173 217 188 220 168 223 189 224 167 227 201
23497 3.93043 -0.428564 -1.79962 216 216 219 206 220 206 221 191 222 221 224 180 225 237 226 217
23499 3.22711 0.288374 -1.30925 215 221 217 182 218 223 219 234 220 192
23501 3.08616 0.606304 -1.20364 215 229 216 229 220 189 221 233
23503 3.4307 0.147813 -1.60036 215 242 216 242 217 232 218 248 220 211 221 250 222 231 223 233 224 222 225 183 226 215
23504 3.40951 -0.605232 -1.5691 215 240 217 237 218 251 227 267
23506 3.33206 -0.0101569 -1.31642 217 173 218 252 220 217 221 190 222 195 224 193
23509 3.32995 -0.455443 -1.25285 219 212
23511 4.91006 0.711979 -2.85165 216 192 217 216 218 192 220 228 221 236 223 275 224 249 231 234 234 235 235 179 237 238 239 222 244 218 245 223 247 237 252 261 258 236
23512 4.83237 0.547761 -2.59693 215 263
23513 3.92326 -0.698535 -1.98035 217 180 219 216 222 196
23514 6.46743 -0.127713 -3.77287 215 36 217 7 219 13 222 11 223 3 224 8 225 35 228 8 229 9 230 5 231 20 232 28 233 26 234 6 235 4 236 29 237 36 238 17 239 14 240 26 242 25 243 31 244 6 245 1 246 4 247 18 248 50 253 8 260 18 529 31 530 21 536 21 542 24 543 18 544 18 546 58
23515 5.07963 0.726205 -5.02516 215 16 216 10 218 22 220 23 221 24 224 23 225 37 230 6 232 3 233 24 234 28 235 23 236 36 237 19 238 36 238 63 239 7 239 64 240 37 241 25 242 7 243 38 244 23 245 9 246 62 515 10 516 39 517 44 523 21 524 49 525 69 528 37 529 56 530 60 533 25 534 32 535 71 537 34 541 49 551 10 553 2
